ply
format ascii 1.0
comment Created by Open3D
element vertex 113
property float x
property float y
property float z
property float nx
property float ny
property float nz
end_header
2.1925 3.6725 2.92441 0.707106 0.00138377 0.707106
1.90688 3.38625 3.37074 0.707106 0.00138377 0.707106
2.07688 3.5575 2.81307 0.707106 0.00138377 0.707106
2.24 3.72 3.48724 0.707106 0.00138377 0.707106
1.82 3.3 3.21271 0.707106 0.00138377 0.707106
2.08125 3.56125 3.22533 0.707106 0.00138377 0.707106
2.05875 3.53875 3.45527 0.707106 0.00138377 0.707106
1.77875 3.25875 3.38689 0.707106 0.00138377 0.707106
1.91 3.39 3.07375 0.707106 0.00138377 0.707106
1.6425 3.1225 3.38396 0.707106 0.00138377 0.707106
2.21062 3.69 3.12836 0.707106 0.00138377 0.707106
2.2525 3.7325 2.57057 0.707106 0.00138377 0.707106
1.96875 3.44875 2.92097 0.707106 0.00138377 0.707106
2.1775 3.6575 2.6991 0.707106 0.00138377 0.707106
1.97625 3.45625 3.19411 0.707106 0.00138377 0.707106
2.17812 3.65875 3.30419 0.707106 0.00138377 0.707106
2.08938 3.56875 3.06444 0.707106 0.00138377 0.707106
1.55875 3.03875 3.49197 0.707106 0.00138377 0.707106
1.71812 3.1975 3.25997 0.707106 0.00138377 0.707106
1.85 3.33 3.49948 0.707106 0.00138377 0.707106
1.70938 3.19 2.84063 0.707106 0.00138377 0.707106
1.66938 3.15 3.06398 0.707106 0.00138377 0.707106
2.14062 3.62125 2.52176 0.707106 0.00138377 0.707106
1.99875 3.47875 2.6535 0.707106 0.00138377 0.707106
1.59375 3.07375 2.88176 0.707106 0.00138377 0.707106
1.55625 3.03625 3.09273 0.707106 0.00138377 0.707106
1.86188 3.3425 2.93002 0.707106 0.00138377 0.707106
1.83375 3.31375 2.63627 0.707106 0.00138377 0.707106
1.66562 3.145 2.67405 0.707106 0.00138377 0.707106
2.0225 3.5025 2.50023 0.707106 0.00138377 0.707106
1.62375 3.1025 2.51879 0.707106 0.00138377 0.707106
1.55062 3.03 2.67833 0.707106 0.00138377 0.707106
1.555 3.035 3.28222 0.707106 0.00138377 0.707106
1.87688 3.35625 2.77683 0.707106 0.00138377 0.707106
1.74062 3.22125 2.51318 0.707106 0.00138377 0.707106
1.79938 3.27875 3.05489 0.707106 0.00138377 0.707106
1.915 3.395 2.50722 0.707106 0.00138377 0.707106
-0.026875 1.48 2.45689 0.000977516 0.000977516 0.999999
0.39375 1.48 2.24838 0.000977516 0.000977516 0.999999
0.438125 1.48 1.92523 0.000977516 0.000977516 0.999999
-0.22625 1.48 2.44894 0.000977516 0.000977516 0.999999
0.65875 1.48 1.61876 0.000977516 0.000977516 0.999999
0.148125 1.48 2.1944 0.000977516 0.000977516 0.999999
0.609375 1.48 2.41118 0.000977516 0.000977516 0.999999
0.62875 1.48 2.12047 0.000977516 0.000977516 0.999999
-0.094375 1.48 2.31028 0.000977516 0.000977516 0.999999
0.52125 1.48 1.73836 0.000977516 0.000977516 0.999999
0.17 1.48 2.36881 0.000977516 0.000977516 0.999999
0.560625 1.48 2.25998 0.000977516 0.000977516 0.999999
0.475 1.48 2.07341 0.000977516 0.000977516 0.999999
0.598125 1.48 1.87423 0.000977516 0.000977516 0.999999
0.21625 1.48 1.99085 0.000977516 0.000977516 0.999999
0.4625 1.48 2.45122 0.000977516 0.000977516 0.999999
0.27125 1.48 2.48973 0.000977516 0.000977516 0.999999
0.315 1.48 2.12009 0.000977516 0.000977516 0.999999
0.7 1.48 1.98459 0.000977516 0.000977516 0.999999
0.04375 1.48 1.999 0.000977516 0.000977516 0.999999
-0.09625 1.48 1.85326 0.000977516 0.000977516 0.999999
-0.026875 1.48 2.15139 0.000977516 0.000977516 0.999999
-0.27625 1.48 1.64026 0.000977516 0.000977516 0.999999
0.373125 1.48 1.76732 0.000977516 0.000977516 0.999999
-0.071875 1.48 1.64462 0.000977516 0.000977516 0.999999
-0.26375 1.48 2.05685 0.000977516 0.000977516 0.999999
0.0625 1.48 1.75451 0.000977516 0.000977516 0.999999
0.461875 1.48 1.55285 0.000977516 0.000977516 0.999999
-0.18 1.48 2.18608 0.000977516 0.000977516 0.999999
0.218125 1.48 1.81807 0.000977516 0.000977516 0.999999
-0.165 1.48 1.50591 0.000977516 0.000977516 0.999999
-0.246875 1.48 1.87159 0.000977516 0.000977516 0.999999
0.25625 1.48 1.60461 0.000977516 0.000977516 0.999999
0.096875 1.48 1.53209 0.000977516 0.000977516 0.999999
-0.10875 1.48 2.00821 0.000977516 0.000977516 0.999999
-0.296875 1.48 2.31577 0.000977516 0.000977516 0.999999
-2.51438 1.0375 1.07734 -0.259673 0.00119665 0.965696
-2.22062 0.95875 0.521761 -0.259673 0.00119665 0.965696
-2.7425 1.09875 0.54496 -0.259673 0.00119665 0.965696
-2 0.89875 0.645727 -0.259673 0.00119665 0.965696
-2.7125 1.09125 0.969295 -0.259673 0.00119665 0.965696
-2.74938 1.10125 0.743686 -0.259673 0.00119665 0.965696
-2.72688 1.095 1.31703 -0.259673 0.00119665 0.965696
-2.49375 1.0325 0.51312 -0.259673 0.00119665 0.965696
-2.43688 1.01625 0.90477 -0.259673 0.00119665 0.965696
-2.2075 0.955 0.710974 -0.259673 0.00119665 0.965696
-2.27438 0.97375 0.931898 -0.259673 0.00119665 0.965696
-2.555 1.04875 0.686568 -0.259673 0.00119665 0.965696
-2.73688 1.0975 1.13874 -0.259673 0.00119665 0.965696
-2.3825 1.00125 0.752296 -0.259673 0.00119665 0.965696
-1.9025 0.8725 0.511543 -0.259673 0.00119665 0.965696
-2.6025 1.06125 1.21157 -0.259673 0.00119665 0.965696
-2.605 1.06125 0.852665 -0.259673 0.00119665 0.965696
-2.36688 0.9975 0.600802 -0.259673 0.00119665 0.965696
-2.76375 1.105 1.47446 -0.259673 0.00119665 0.965696
-2.06562 0.9175 0.508998 -0.259673 0.00119665 0.965696
-2.365 0.9975 1.05677 -0.259673 0.00119665 0.965696
-2.16562 0.94375 1.17476 -0.259673 0.00119665 0.965696
-1.9675 0.89 0.840414 -0.259673 0.00119665 0.965696
-1.9525 0.88625 1.08655 -0.259673 0.00119665 0.965696
-1.86812 0.86375 1.30319 -0.259673 0.00119665 0.965696
-2.36 0.99625 1.3847 -0.259673 0.00119665 0.965696
-2.11438 0.93 1.48887 -0.259673 0.00119665 0.965696
-1.82938 0.85375 0.687537 -0.259673 0.00119665 0.965696
-2.06938 0.9175 1.29425 -0.259673 0.00119665 0.965696
-1.82438 0.8525 1.45165 -0.259673 0.00119665 0.965696
-2.11062 0.92875 0.909297 -0.259673 0.00119665 0.965696
-2.415 1.01125 1.23571 -0.259673 0.00119665 0.965696
-1.85625 0.86125 0.961166 -0.259673 0.00119665 0.965696
-2.53562 1.04375 1.35617 -0.259673 0.00119665 0.965696
-2.46062 1.02375 1.4926 -0.259673 0.00119665 0.965696
-2.60938 1.06375 1.49765 -0.259673 0.00119665 0.965696
-2.21562 0.9575 1.34041 -0.259673 0.00119665 0.965696
-1.8175 0.85 1.15749 -0.259673 0.00119665 0.965696
-1.96562 0.89 1.41434 -0.259673 0.00119665 0.965696
-2.26 0.96875 1.49709 -0.259673 0.00119665 0.965696
