ply
format ascii 1.0
comment Created by Open3D
element vertex 890
property float x
property float y
property float z
property float nx
property float ny
property float nz
end_header
15.6 -2.74125 5.28685 -0.999999 0.000977516 0.000977516
15.6 -2.9625 4.92657 -0.999999 0.000977516 0.000977516
15.6 -3.01625 4.6888 -0.999999 0.000977516 0.000977516
15.6 -2.48375 5.47013 -0.999999 0.000977516 0.000977516
15.6 -3.04625 5.33989 -0.999999 0.000977516 0.000977516
15.6 -3.2 5.19973 -0.999999 0.000977516 0.000977516
15.6 -2.89375 5.14785 -0.999999 0.000977516 0.000977516
15.6 -2.2475 5.46009 -0.999999 0.000977516 0.000977516
15.6 -2.4775 5.22299 -0.999999 0.000977516 0.000977516
15.6 -2.84875 5.47155 -0.999999 0.000977516 0.000977516
15.6 -3.175 4.8966 -0.999999 0.000977516 0.000977516
15.6 -2.75625 4.99779 -0.999999 0.000977516 0.000977516
15.6 -3.19 4.58084 -0.999999 0.000977516 0.000977516
15.6 -3.18125 5.49995 -0.999999 0.000977516 0.000977516
15.6 -2.66625 4.57513 -0.999999 0.000977516 0.000977516
15.6 -2.285 4.60594 -0.999999 0.000977516 0.000977516
15.6 -2.23125 4.89067 -0.999999 0.000977516 0.000977516
15.6 -2.5425 4.98631 -0.999999 0.000977516 0.000977516
15.6 -2.53875 4.74794 -0.999999 0.000977516 0.000977516
15.6 -2.24375 5.10076 -0.999999 0.000977516 0.000977516
15.6 -2.9075 4.51273 -0.999999 0.000977516 0.000977516
15.6 -2.74125 4.77069 -0.999999 0.000977516 0.000977516
15.6 -2.4725 4.50574 -0.999999 0.000977516 0.000977516
12.9 -4.795 4.85869 0.999999 0.000977516 0.000977516
12.9 -4.8775 5.17855 0.999999 0.000977516 0.000977516
12.9 -4.90875 4.60734 0.999999 0.000977516 0.000977516
12.9 -4.2275 4.61292 0.999999 0.000977516 0.000977516
12.9 -4.5075 4.82184 0.999999 0.000977516 0.000977516
12.9 -4.65125 4.64051 0.999999 0.000977516 0.000977516
12.9 -4.98875 5.44151 0.999999 0.000977516 0.000977516
12.9 -4.98 4.96325 0.999999 0.000977516 0.000977516
12.9 -4.63125 5.03937 0.999999 0.000977516 0.000977516
12.9 -4.46875 4.53822 0.999999 0.000977516 0.000977516
12.9 -4.0225 4.50156 0.999999 0.000977516 0.000977516
12.9 -4.30625 4.80166 0.999999 0.000977516 0.000977516
12.9 -4.1275 5.33294 0.999999 0.000977516 0.000977516
12.9 -4.43 5.16788 0.999999 0.000977516 0.000977516
12.9 -4.04125 4.78132 0.999999 0.000977516 0.000977516
12.9 -4.265 5.03574 0.999999 0.000977516 0.000977516
12.9 -4.31125 5.45512 0.999999 0.000977516 0.000977516
12.9 -4.635 5.27826 0.999999 0.000977516 0.000977516
12.9 -4.54625 5.47724 0.999999 0.000977516 0.000977516
12.9 -4.755 5.48754 0.999999 0.000977516 0.000977516
12.9 -4.0525 5.1384 0.999999 0.000977516 0.000977516
12.9 -4.0025 5.49014 0.999999 0.000977516 0.000977516
12.9 -9.75875 5.27427 0.999999 0.000977516 0.000977516
12.9 -9.20375 4.7623 0.999999 0.000977516 0.000977516
12.9 -9.285 5.17705 0.999999 0.000977516 0.000977516
12.9 -9.5275 5.22181 0.999999 0.000977516 0.000977516
12.9 -9.32125 4.9499 0.999999 0.000977516 0.000977516
12.9 -10.02 5.40318 0.999999 0.000977516 0.000977516
12.9 -9.49375 4.80275 0.999999 0.000977516 0.000977516
12.9 -9.2575 5.4987 0.999999 0.000977516 0.000977516
12.9 -9.6375 5.44799 0.999999 0.000977516 0.000977516
12.9 -9.59125 4.98641 0.999999 0.000977516 0.000977516
12.9 -9.2575 4.56204 0.999999 0.000977516 0.000977516
12.9 -9.83375 5.49699 0.999999 0.000977516 0.000977516
12.9 -9.44 5.40632 0.999999 0.000977516 0.000977516
12.9 -10.1962 5.49787 0.999999 0.000977516 0.000977516
12.9 -9.7725 5.07284 0.999999 0.000977516 0.000977516
12.9 -10.0575 5.08901 0.999999 0.000977516 0.000977516
12.9 -10.07 4.5701 0.999999 0.000977516 0.000977516
12.9 -9.53875 4.54711 0.999999 0.000977516 0.000977516
12.9 -9.94875 4.79789 0.999999 0.000977516 0.000977516
12.9 -9.69 4.72905 0.999999 0.000977516 0.000977516
12.9 -10.1338 4.88708 0.999999 0.000977516 0.000977516
12.9 -10.1738 5.27128 0.999999 0.000977516 0.000977516
12.9 -9.755 4.52521 0.999999 0.000977516 0.000977516
16.7481 -11.7 4.84903 0.000977516 0.000977516 -0.999999
16.5619 -11.7 4.64916 0.000977516 0.000977516 -0.999999
17.0644 -11.7 4.86408 0.000977516 0.000977516 -0.999999
17.1825 -11.7 5.03119 0.000977516 0.000977516 -0.999999
17.1644 -11.7 4.54028 0.000977516 0.000977516 -0.999999
17.0169 -11.7 5.26262 0.000977516 0.000977516 -0.999999
16.2531 -11.7 4.5175 0.000977516 0.000977516 -0.999999
16.8712 -11.7 4.60691 0.000977516 0.000977516 -0.999999
17.1969 -11.7 5.39157 0.000977516 0.000977516 -0.999999
16.8919 -11.7 5.07366 0.000977516 0.000977516 -0.999999
16.7019 -11.7 4.50015 0.000977516 0.000977516 -0.999999
16.2725 -11.7 4.90933 0.000977516 0.000977516 -0.999999
16.4719 -11.7 5.04688 0.000977516 0.000977516 -0.999999
16.6262 -11.7 5.46271 0.000977516 0.000977516 -0.999999
16.5525 -11.7 5.26913 0.000977516 0.000977516 -0.999999
16.3562 -11.7 5.38846 0.000977516 0.000977516 -0.999999
16.3662 -11.7 4.71698 0.000977516 0.000977516 -0.999999
16.2906 -11.7 5.13922 0.000977516 0.000977516 -0.999999
16.8088 -11.7 5.36369 0.000977516 0.000977516 -0.999999
16.6875 -11.7 5.04106 0.000977516 0.000977516 -0.999999
17.0069 -11.7 5.47833 0.000977516 0.000977516 -0.999999
16.5188 -11.7 4.85022 0.000977516 0.000977516 -0.999999
23.305 -11.7 5.34665 0.000977516 0.000977516 -0.999999
22.925 -11.7 5.42913 0.000977516 0.000977516 -0.999999
22.5775 -11.7 4.99909 0.000977516 0.000977516 -0.999999
23.0444 -11.7 5.17118 0.000977516 0.000977516 -0.999999
22.56 -11.7 5.26135 0.000977516 0.000977516 -0.999999
22.5038 -11.7 4.6282 0.000977516 0.000977516 -0.999999
22.8519 -11.7 4.86513 0.000977516 0.000977516 -0.999999
22.7969 -11.7 5.07852 0.000977516 0.000977516 -0.999999
22.6244 -11.7 4.79407 0.000977516 0.000977516 -0.999999
22.725 -11.7 5.39026 0.000977516 0.000977516 -0.999999
22.5456 -11.7 5.48899 0.000977516 0.000977516 -0.999999
23.1306 -11.7 5.48346 0.000977516 0.000977516 -0.999999
23.4719 -11.7 5.49123 0.000977516 0.000977516 -0.999999
23.4725 -11.7 5.21692 0.000977516 0.000977516 -0.999999
23.4569 -11.7 4.88203 0.000977516 0.000977516 -0.999999
23.4962 -11.7 4.67685 0.000977516 0.000977516 -0.999999
23.2525 -11.7 4.53763 0.000977516 0.000977516 -0.999999
22.8462 -11.7 4.50587 0.000977516 0.000977516 -0.999999
23.2512 -11.7 5.11453 0.000977516 0.000977516 -0.999999
22.9956 -11.7 4.72328 0.000977516 0.000977516 -0.999999
23.0806 -11.7 4.91366 0.000977516 0.000977516 -0.999999
23.2819 -11.7 4.74639 0.000977516 0.000977516 -0.999999
23.0481 -11.7 4.51029 0.000977516 0.000977516 -0.999999
31.4806 -11.7 4.52051 0.000977516 0.000977516 -0.999999
31.2869 -11.7 4.59569 0.000977516 0.000977516 -0.999999
31.2925 -11.7 4.80505 0.000977516 0.000977516 -0.999999
30.9731 -11.7 4.67946 0.000977516 0.000977516 -0.999999
31.6838 -11.7 5.1296 0.000977516 0.000977516 -0.999999
31.2569 -11.7 5.03157 0.000977516 0.000977516 -0.999999
31.5994 -11.7 5.37243 0.000977516 0.000977516 -0.999999
31.5738 -11.7 4.75533 0.000977516 0.000977516 -0.999999
31.455 -11.7 5.09045 0.000977516 0.000977516 -0.999999
31.6831 -11.7 4.50569 0.000977516 0.000977516 -0.999999
30.7344 -11.7 4.5043 0.000977516 0.000977516 -0.999999
31.0875 -11.7 4.87888 0.000977516 0.000977516 -0.999999
31.0981 -11.7 4.51702 0.000977516 0.000977516 -0.999999
31.6869 -11.7 4.92284 0.000977516 0.000977516 -0.999999
30.9156 -11.7 5.23157 0.000977516 0.000977516 -0.999999
31.3225 -11.7 5.30709 0.000977516 0.000977516 -0.999999
30.9456 -11.7 5.03314 0.000977516 0.000977516 -0.999999
30.7594 -11.7 4.84574 0.000977516 0.000977516 -0.999999
31.0881 -11.7 5.47502 0.000977516 0.000977516 -0.999999
30.8419 -11.7 5.42045 0.000977516 0.000977516 -0.999999
30.7119 -11.7 5.25358 0.000977516 0.000977516 -0.999999
31.1362 -11.7 5.20277 0.000977516 0.000977516 -0.999999
30.7112 -11.7 5.04229 0.000977516 0.000977516 -0.999999
31.425 -11.7 5.48114 0.000977516 0.000977516 -0.999999
21.2881 -8.9 4.78106 0.000977516 0.000977516 0.999999
21.1431 -8.9 5.21661 0.000977516 0.000977516 0.999999
20.6594 -8.9 5.33594 0.000977516 0.000977516 0.999999
21.12 -8.9 4.92175 0.000977516 0.000977516 0.999999
20.405 -8.9 5.41736 0.000977516 0.000977516 0.999999
21.2531 -8.9 5.41212 0.000977516 0.000977516 0.999999
20.8631 -8.9 5.09511 0.000977516 0.000977516 0.999999
21.0288 -8.9 5.4018 0.000977516 0.000977516 0.999999
21.2975 -8.9 4.54796 0.000977516 0.000977516 0.999999
20.8294 -8.9 5.44597 0.000977516 0.000977516 0.999999
21.2719 -8.9 5.06316 0.000977516 0.000977516 0.999999
20.9156 -8.9 4.89733 0.000977516 0.000977516 0.999999
21.0956 -8.9 4.71499 0.000977516 0.000977516 0.999999
20.6662 -8.9 5.13406 0.000977516 0.000977516 0.999999
20.5194 -8.9 4.51781 0.000977516 0.000977516 0.999999
20.4225 -8.9 5.01828 0.000977516 0.000977516 0.999999
20.9725 -8.9 4.51443 0.000977516 0.000977516 0.999999
20.3225 -8.9 4.61008 0.000977516 0.000977516 0.999999
20.6762 -8.9 4.82893 0.000977516 0.000977516 0.999999
20.3081 -8.9 4.81906 0.000977516 0.000977516 0.999999
20.7906 -8.9 4.61141 0.000977516 0.000977516 0.999999
20.4819 -8.9 5.21603 0.000977516 0.000977516 0.999999
20.4925 -8.9 4.73462 0.000977516 0.000977516 0.999999
27.51 -8.9 4.79937 0.000977516 0.000977516 0.999999
27.5812 -8.9 4.52225 0.000977516 0.000977516 0.999999
27.7438 -8.9 4.66316 0.000977516 0.000977516 0.999999
27.3006 -8.9 5.11017 0.000977516 0.000977516 0.999999
27.305 -8.9 4.88286 0.000977516 0.000977516 0.999999
27.1331 -8.9 4.64029 0.000977516 0.000977516 0.999999
27.1462 -8.9 5.35305 0.000977516 0.000977516 0.999999
27.3525 -8.9 4.65806 0.000977516 0.000977516 0.999999
27.8994 -8.9 4.52676 0.000977516 0.000977516 0.999999
27.5894 -8.9 4.99516 0.000977516 0.000977516 0.999999
27.1212 -8.9 5.01668 0.000977516 0.000977516 0.999999
28.0988 -8.9 4.50104 0.000977516 0.000977516 0.999999
27.7869 -8.9 5.24814 0.000977516 0.000977516 0.999999
28.0112 -8.9 5.13868 0.000977516 0.000977516 0.999999
28.0294 -8.9 5.44297 0.000977516 0.000977516 0.999999
27.565 -8.9 5.2404 0.000977516 0.000977516 0.999999
27.8681 -8.9 4.87004 0.000977516 0.000977516 0.999999
28.0525 -8.9 4.75643 0.000977516 0.000977516 0.999999
27.5081 -8.9 5.47155 0.000977516 0.000977516 0.999999
27.7888 -8.9 5.45789 0.000977516 0.000977516 0.999999
27.3531 -8.9 5.33187 0.000977516 0.000977516 0.999999
28.0981 -8.9 4.95822 0.000977516 0.000977516 0.999999
34.1556 -8.9 5.49171 0.000977516 0.000977516 0.999999
34.8781 -8.9 5.08272 0.000977516 0.000977516 0.999999
34.8962 -8.9 4.71078 0.000977516 0.000977516 0.999999
34.6462 -8.9 5.36972 0.000977516 0.000977516 0.999999
34.6244 -8.9 5.00996 0.000977516 0.000977516 0.999999
34.8881 -8.9 5.3536 0.000977516 0.000977516 0.999999
34.345 -8.9 5.39417 0.000977516 0.000977516 0.999999
34.225 -8.9 5.2295 0.000977516 0.000977516 0.999999
34.4031 -8.9 5.04753 0.000977516 0.000977516 0.999999
34.7531 -8.9 4.85632 0.000977516 0.000977516 0.999999
33.9238 -8.9 5.47703 0.000977516 0.000977516 0.999999
34.5412 -8.9 5.19302 0.000977516 0.000977516 0.999999
34.8912 -8.9 4.50931 0.000977516 0.000977516 0.999999
34.1275 -8.9 5.01485 0.000977516 0.000977516 0.999999
34.6731 -8.9 4.62465 0.000977516 0.000977516 0.999999
34.3706 -8.9 4.69849 0.000977516 0.000977516 0.999999
33.9756 -8.9 5.20377 0.000977516 0.000977516 0.999999
33.9406 -8.9 4.69932 0.000977516 0.000977516 0.999999
34.1019 -8.9 4.56407 0.000977516 0.000977516 0.999999
34.1631 -8.9 4.78962 0.000977516 0.000977516 0.999999
33.9394 -8.9 4.90557 0.000977516 0.000977516 0.999999
34.4469 -8.9 4.50787 0.000977516 0.000977516 0.999999
34.5538 -8.9 4.80689 0.000977516 0.000977516 0.999999
33.9006 -8.9 4.50312 0.000977516 0.000977516 0.999999
39.5194 -11.7 4.87379 0.000977516 0.000977516 -0.999999
40.0812 -11.7 5.44324 0.000977516 0.000977516 -0.999999
39.9025 -11.7 4.59168 0.000977516 0.000977516 -0.999999
39.8225 -11.7 4.94471 0.000977516 0.000977516 -0.999999
39.9762 -11.7 5.19258 0.000977516 0.000977516 -0.999999
39.495 -11.7 4.6198 0.000977516 0.000977516 -0.999999
39.2062 -11.7 4.53905 0.000977516 0.000977516 -0.999999
39.6919 -11.7 4.74272 0.000977516 0.000977516 -0.999999
40.0888 -11.7 4.70695 0.000977516 0.000977516 -0.999999
40.0469 -11.7 4.92586 0.000977516 0.000977516 -0.999999
39.7769 -11.7 5.17339 0.000977516 0.000977516 -0.999999
39.6938 -11.7 4.50383 0.000977516 0.000977516 -0.999999
39.3212 -11.7 4.7203 0.000977516 0.000977516 -0.999999
40.0856 -11.7 4.50619 0.000977516 0.000977516 -0.999999
39.3569 -11.7 5.15789 0.000977516 0.000977516 -0.999999
39.5938 -11.7 5.3926 0.000977516 0.000977516 -0.999999
39.1019 -11.7 5.05117 0.000977516 0.000977516 -0.999999
39.2719 -11.7 5.45236 0.000977516 0.000977516 -0.999999
39.555 -11.7 5.1212 0.000977516 0.000977516 -0.999999
39.8656 -11.7 5.38383 0.000977516 0.000977516 -0.999999
39.1512 -11.7 4.85555 0.000977516 0.000977516 -0.999999
39.1088 -11.7 5.29656 0.000977516 0.000977516 -0.999999
39.3325 -11.7 4.95578 0.000977516 0.000977516 -0.999999
37.8 -7.0475 4.82021 0.999999 0.000977516 0.000977516
37.8 -7.65875 5.43064 0.999999 0.000977516 0.000977516
37.8 -7.27625 4.98466 0.999999 0.000977516 0.000977516
37.8 -7.405 5.44511 0.999999 0.000977516 0.000977516
37.8 -7.275 5.25284 0.999999 0.000977516 0.000977516
37.8 -7.0225 5.17334 0.999999 0.000977516 0.000977516
37.8 -7.26375 4.76669 0.999999 0.000977516 0.000977516
37.8 -7.0475 5.49333 0.999999 0.000977516 0.000977516
37.8 -7.885 5.47328 0.999999 0.000977516 0.000977516
37.8 -7.49375 5.18521 0.999999 0.000977516 0.000977516
37.8 -7.04 4.55446 0.999999 0.000977516 0.000977516
37.8 -7.7425 5.249 0.999999 0.000977516 0.000977516
37.8 -7.4775 4.9834 0.999999 0.000977516 0.000977516
37.8 -7.71 4.90707 0.999999 0.000977516 0.000977516
37.8 -7.6175 4.52327 0.999999 0.000977516 0.000977516
37.8 -7.875 4.70295 0.999999 0.000977516 0.000977516
37.8 -7.95375 5.13304 0.999999 0.000977516 0.000977516
37.8 -7.38375 4.50227 0.999999 0.000977516 0.000977516
37.8 -7.955 4.92682 0.999999 0.000977516 0.000977516
37.8 -7.50625 4.77828 0.999999 0.000977516 0.000977516
37.8 -7.89875 4.50003 0.999999 0.000977516 0.000977516
37.8 -3.44375 5.27495 0.999999 0.000977516 0.000977516
37.8 -2.7525 4.63808 0.999999 0.000977516 0.000977516
37.8 -3.15375 4.99421 0.999999 0.000977516 0.000977516
37.8 -3.0175 4.77936 0.999999 0.000977516 0.000977516
37.8 -3.06875 4.55919 0.999999 0.000977516 0.000977516
37.8 -3.36 4.67948 0.999999 0.000977516 0.000977516
37.8 -3.55125 4.95013 0.999999 0.000977516 0.000977516
37.8 -3.58125 5.4346 0.999999 0.000977516 0.000977516
37.8 -3.54625 4.543 0.999999 0.000977516 0.000977516
37.8 -3.34625 5.05043 0.999999 0.000977516 0.000977516
37.8 -3.58375 4.74099 0.999999 0.000977516 0.000977516
37.8 -2.60375 4.50251 0.999999 0.000977516 0.000977516
37.8 -3.26375 4.50378 0.999999 0.000977516 0.000977516
37.8 -3.59875 5.14533 0.999999 0.000977516 0.000977516
37.8 -2.795 5.15091 0.999999 0.000977516 0.000977516
37.8 -3.09625 5.44443 0.999999 0.000977516 0.000977516
37.8 -2.73625 5.48678 0.999999 0.000977516 0.000977516
37.8 -3.015 5.24589 0.999999 0.000977516 0.000977516
37.8 -2.74125 4.92556 0.999999 0.000977516 0.000977516
37.8 -2.63125 5.31385 0.999999 0.000977516 0.000977516
37.8 -3.37 5.49252 0.999999 0.000977516 0.000977516
37.8 -3.2375 5.29051 0.999999 0.000977516 0.000977516
37.8 -2.93125 4.99824 0.999999 0.000977516 0.000977516
37.8 -2.6 4.78347 0.999999 0.000977516 0.000977516
37.8 -2.605 5.07574 0.999999 0.000977516 0.000977516
37.8 3.23125 5.16132 0.999999 0.000977516 0.000977516
37.8 3.3475 5.41467 0.999999 0.000977516 0.000977516
37.8 3.34375 4.63733 0.999999 0.000977516 0.000977516
37.8 2.78 5.18488 0.999999 0.000977516 0.000977516
37.8 3.09125 5.49007 0.999999 0.000977516 0.000977516
37.8 3.38375 4.84058 0.999999 0.000977516 0.000977516
37.8 2.495 5.41604 0.999999 0.000977516 0.000977516
37.8 2.995 5.02976 0.999999 0.000977516 0.000977516
37.8 2.745 5.44805 0.999999 0.000977516 0.000977516
37.8 3.2025 4.94144 0.999999 0.000977516 0.000977516
37.8 2.9175 5.33862 0.999999 0.000977516 0.000977516
37.8 3.39875 5.04829 0.999999 0.000977516 0.000977516
37.8 3.17 4.73797 0.999999 0.000977516 0.000977516
37.8 2.7875 4.82075 0.999999 0.000977516 0.000977516
37.8 2.6875 4.52546 0.999999 0.000977516 0.000977516
37.8 2.57625 5.05451 0.999999 0.000977516 0.000977516
37.8 2.5525 4.68004 0.999999 0.000977516 0.000977516
37.8 2.9975 4.5208 0.999999 0.000977516 0.000977516
37.8 2.40625 4.90233 0.999999 0.000977516 0.000977516
37.8 2.42125 5.18862 0.999999 0.000977516 0.000977516
37.8 2.4375 4.50307 0.999999 0.000977516 0.000977516
37.8 2.96875 4.72779 0.999999 0.000977516 0.000977516
37.8 3.1975 4.50015 0.999999 0.000977516 0.000977516
37.8 6.31625 4.8531 0.999999 0.000977516 0.000977516
37.8 6.21 5.15469 0.999999 0.000977516 0.000977516
37.8 6.4125 5.15076 0.999999 0.000977516 0.000977516
37.8 6.20125 4.5639 0.999999 0.000977516 0.000977516
37.8 6.70375 4.63732 0.999999 0.000977516 0.000977516
37.8 6.3975 4.63448 0.999999 0.000977516 0.000977516
37.8 6.11 4.9418 0.999999 0.000977516 0.000977516
37.8 6.90625 4.52888 0.999999 0.000977516 0.000977516
37.8 6.5425 4.88508 0.999999 0.000977516 0.000977516
37.8 6.2025 5.36925 0.999999 0.000977516 0.000977516
37.8 6.76625 4.82897 0.999999 0.000977516 0.000977516
37.8 6.10375 4.73934 0.999999 0.000977516 0.000977516
37.8 6.5525 4.50255 0.999999 0.000977516 0.000977516
37.8 6.4 5.45725 0.999999 0.000977516 0.000977516
37.8 6.75875 5.19243 0.999999 0.000977516 0.000977516
37.8 7.0575 5.36576 0.999999 0.000977516 0.000977516
37.8 7.03 4.73667 0.999999 0.000977516 0.000977516
37.8 6.605 5.45885 0.999999 0.000977516 0.000977516
37.8 6.82 5.47407 0.999999 0.000977516 0.000977516
37.8 7.05875 4.9824 0.999999 0.000977516 0.000977516
37.8 6.965 5.16131 0.999999 0.000977516 0.000977516
35 -4.2975 5.17151 0.999999 0.000977516 0.000977516
35 -4.4575 5.47709 0.999999 0.000977516 0.000977516
35 -4.41875 4.99043 0.999999 0.000977516 0.000977516
35 -4.7725 5.2725 0.999999 0.000977516 0.000977516
35 -4.1875 5.41539 0.999999 0.000977516 0.000977516
35 -4.1425 5.03503 0.999999 0.000977516 0.000977516
35 -4.11375 4.61231 0.999999 0.000977516 0.000977516
35 -4.96875 5.43627 0.999999 0.000977516 0.000977516
35 -4.58875 5.12452 0.999999 0.000977516 0.000977516
35 -4.6675 5.47913 0.999999 0.000977516 0.000977516
35 -4.23625 4.84606 0.999999 0.000977516 0.000977516
35 -4.1025 5.23383 0.999999 0.000977516 0.000977516
35 -4.8275 4.50233 0.999999 0.000977516 0.000977516
35 -4.7675 4.92534 0.999999 0.000977516 0.000977516
35 -4.44125 4.62673 0.999999 0.000977516 0.000977516
35 -4.9575 5.17797 0.999999 0.000977516 0.000977516
35 -5.00375 4.59696 0.999999 0.000977516 0.000977516
35 -5.09125 4.77765 0.999999 0.000977516 0.000977516
35 -4.6725 4.72914 0.999999 0.000977516 0.000977516
35 -5 4.98137 0.999999 0.000977516 0.000977516
35 -4.89 4.76664 0.999999 0.000977516 0.000977516
35 -4.61 4.51403 0.999999 0.000977516 0.000977516
35 -4.28625 4.50025 0.999999 0.000977516 0.000977516
40.6 -7.04 4.68852 -0.999999 0.000977516 0.000977516
40.6 -6.825 4.58395 -0.999999 0.000977516 0.000977516
40.6 -6.58625 5.10279 -0.999999 0.000977516 0.000977516
40.6 -6.3875 4.80231 -0.999999 0.000977516 0.000977516
40.6 -6.72625 4.83494 -0.999999 0.000977516 0.000977516
40.6 -6.53125 4.60314 -0.999999 0.000977516 0.000977516
40.6 -6.32875 5.38614 -0.999999 0.000977516 0.000977516
40.6 -6.32375 5.11173 -0.999999 0.000977516 0.000977516
40.6 -7.15375 4.52226 -0.999999 0.000977516 0.000977516
40.6 -6.32375 4.56738 -0.999999 0.000977516 0.000977516
40.6 -6.5075 5.28692 -0.999999 0.000977516 0.000977516
40.6 -6.92875 4.86594 -0.999999 0.000977516 0.000977516
40.6 -7.00625 5.12031 -0.999999 0.000977516 0.000977516
40.6 -7.23125 5.41787 -0.999999 0.000977516 0.000977516
40.6 -7.23125 5.13108 -0.999999 0.000977516 0.000977516
40.6 -7.295 4.8179 -0.999999 0.000977516 0.000977516
40.6 -7.01375 5.36597 -0.999999 0.000977516 0.000977516
40.6 -6.805 5.43823 -0.999999 0.000977516 0.000977516
40.6 -6.805 5.16135 -0.999999 0.000977516 0.000977516
40.6 -7.1275 4.93043 -0.999999 0.000977516 0.000977516
40.6 -6.525 5.48829 -0.999999 0.000977516 0.000977516
40.6 -1.365 5.22594 -0.999999 0.000977516 0.000977516
40.6 -1.12375 5.24066 -0.999999 0.000977516 0.000977516
40.6 -1.48 4.74938 -0.999999 0.000977516 0.000977516
40.6 -1.57 5.43333 -0.999999 0.000977516 0.000977516
40.6 -1.06 5.47445 -0.999999 0.000977516 0.000977516
40.6 -1.4825 5.02197 -0.999999 0.000977516 0.000977516
40.6 -1.5775 5.22932 -0.999999 0.000977516 0.000977516
40.6 -1.2425 4.97693 -0.999999 0.000977516 0.000977516
40.6 -0.805 5.34859 -0.999999 0.000977516 0.000977516
40.6 -1.3775 5.49241 -0.999999 0.000977516 0.000977516
40.6 -0.645 5.47851 -0.999999 0.000977516 0.000977516
40.6 -1.56875 4.53973 -0.999999 0.000977516 0.000977516
40.6 -0.93125 5.18134 -0.999999 0.000977516 0.000977516
40.6 -0.60875 5.22873 -0.999999 0.000977516 0.000977516
40.6 -0.80875 4.89487 -0.999999 0.000977516 0.000977516
40.6 -1.23375 4.6859 -0.999999 0.000977516 0.000977516
40.6 -0.99875 4.66103 -0.999999 0.000977516 0.000977516
40.6 -0.64625 4.69545 -0.999999 0.000977516 0.000977516
40.6 -0.75375 4.51437 -0.999999 0.000977516 0.000977516
40.6 -1.05125 4.86106 -0.999999 0.000977516 0.000977516
40.6 -0.63125 4.99349 -0.999999 0.000977516 0.000977516
40.6 -1.365 4.5326 -0.999999 0.000977516 0.000977516
40.6 -1.1325 4.50646 -0.999999 0.000977516 0.000977516
40.6 2.95125 4.78496 -0.999999 0.000977516 0.000977516
40.6 3.245 5.08125 -0.999999 0.000977516 0.000977516
40.6 2.5775 4.58458 -0.999999 0.000977516 0.000977516
40.6 3.0525 5.00535 -0.999999 0.000977516 0.000977516
40.6 3.35125 5.38021 -0.999999 0.000977516 0.000977516
40.6 3.31375 4.56971 -0.999999 0.000977516 0.000977516
40.6 3.295 4.8278 -0.999999 0.000977516 0.000977516
40.6 2.87625 4.57751 -0.999999 0.000977516 0.000977516
40.6 3.08375 4.55642 -0.999999 0.000977516 0.000977516
40.6 2.7525 4.81 -0.999999 0.000977516 0.000977516
40.6 3.1775 5.27585 -0.999999 0.000977516 0.000977516
40.6 2.48 5.14496 -0.999999 0.000977516 0.000977516
40.6 2.4525 5.469 -0.999999 0.000977516 0.000977516
40.6 2.44875 4.73946 -0.999999 0.000977516 0.000977516
40.6 2.7725 5.06214 -0.999999 0.000977516 0.000977516
40.6 2.96375 5.44593 -0.999999 0.000977516 0.000977516
40.6 2.84125 5.28454 -0.999999 0.000977516 0.000977516
40.6 2.68625 5.46917 -0.999999 0.000977516 0.000977516
40.6 2.54875 4.91612 -0.999999 0.000977516 0.000977516
40.6 3.16875 5.49418 -0.999999 0.000977516 0.000977516
40.6 2.63875 5.2691 -0.999999 0.000977516 0.000977516
41.3188 4.3 5.36292 0.000977516 0.000977516 -0.999999
41.015 4.3 5.37207 0.000977516 0.000977516 -0.999999
41.0406 4.3 4.69017 0.000977516 0.000977516 -0.999999
41.5375 4.3 5.16263 0.000977516 0.000977516 -0.999999
41.1488 4.3 5.1842 0.000977516 0.000977516 -0.999999
41.6944 4.3 5.34115 0.000977516 0.000977516 -0.999999
41.2431 4.3 4.84083 0.000977516 0.000977516 -0.999999
41.005 4.3 4.90055 0.000977516 0.000977516 -0.999999
41.5206 4.3 5.47423 0.000977516 0.000977516 -0.999999
41.3381 4.3 5.0862 0.000977516 0.000977516 -0.999999
41.9456 4.3 5.48903 0.000977516 0.000977516 -0.999999
41.1706 4.3 5.49855 0.000977516 0.000977516 -0.999999
41.5588 4.3 4.52881 0.000977516 0.000977516 -0.999999
41.9169 4.3 5.16294 0.000977516 0.000977516 -0.999999
41.8844 4.3 4.67877 0.000977516 0.000977516 -0.999999
41.4369 4.3 4.74138 0.000977516 0.000977516 -0.999999
41.7488 4.3 4.96625 0.000977516 0.000977516 -0.999999
41.965 4.3 4.87958 0.000977516 0.000977516 -0.999999
41.2181 4.3 4.51484 0.000977516 0.000977516 -0.999999
41.6562 4.3 4.74939 0.000977516 0.000977516 -0.999999
41.5212 4.3 4.93494 0.000977516 0.000977516 -0.999999
41.9894 4.3 4.50486 0.000977516 0.000977516 -0.999999
41.7662 4.3 4.51315 0.000977516 0.000977516 -0.999999
45.4825 4.3 5.05632 0.000977516 0.000977516 -0.999999
45.0656 4.3 4.50665 0.000977516 0.000977516 -0.999999
45.1738 4.3 4.9833 0.000977516 0.000977516 -0.999999
45.4669 4.3 4.67919 0.000977516 0.000977516 -0.999999
44.9581 4.3 4.84775 0.000977516 0.000977516 -0.999999
45.4988 4.3 5.3556 0.000977516 0.000977516 -0.999999
45.3156 4.3 5.26008 0.000977516 0.000977516 -0.999999
44.5925 4.3 4.50684 0.000977516 0.000977516 -0.999999
44.8669 4.3 4.57132 0.000977516 0.000977516 -0.999999
45.2444 4.3 4.73281 0.000977516 0.000977516 -0.999999
45.2875 4.3 4.53044 0.000977516 0.000977516 -0.999999
44.72 4.3 4.71683 0.000977516 0.000977516 -0.999999
45.3906 4.3 4.87119 0.000977516 0.000977516 -0.999999
45.0781 4.3 5.27608 0.000977516 0.000977516 -0.999999
44.8125 4.3 5.4878 0.000977516 0.000977516 -0.999999
44.8806 4.3 5.10154 0.000977516 0.000977516 -0.999999
44.6719 4.3 4.94613 0.000977516 0.000977516 -0.999999
45.1944 4.3 5.48664 0.000977516 0.000977516 -0.999999
44.5631 4.3 5.19342 0.000977516 0.000977516 -0.999999
44.5481 4.3 5.4687 0.000977516 0.000977516 -0.999999
44.5162 4.3 4.71433 0.000977516 0.000977516 -0.999999
44.7738 4.3 5.28204 0.000977516 0.000977516 -0.999999
49.3125 4.3 5.48224 0.000977516 0.000977516 -0.999999
48.725 4.3 5.36646 0.000977516 0.000977516 -0.999999
48.8306 4.3 4.92592 0.000977516 0.000977516 -0.999999
48.9031 4.3 5.48442 0.000977516 0.000977516 -0.999999
48.5981 4.3 5.13229 0.000977516 0.000977516 -0.999999
48.5044 4.3 4.84002 0.000977516 0.000977516 -0.999999
49.0244 4.3 5.07017 0.000977516 0.000977516 -0.999999
49.0906 4.3 5.28768 0.000977516 0.000977516 -0.999999
48.5225 4.3 5.47407 0.000977516 0.000977516 -0.999999
48.5688 4.3 4.63442 0.000977516 0.000977516 -0.999999
48.8506 4.3 5.20835 0.000977516 0.000977516 -0.999999
48.7419 4.3 4.74665 0.000977516 0.000977516 -0.999999
49.1106 4.3 5.49248 0.000977516 0.000977516 -0.999999
49.4812 4.3 4.93468 0.000977516 0.000977516 -0.999999
49.445 4.3 5.15795 0.000977516 0.000977516 -0.999999
49.48 4.3 4.68499 0.000977516 0.000977516 -0.999999
49.225 4.3 5.05476 0.000977516 0.000977516 -0.999999
49.0944 4.3 4.71388 0.000977516 0.000977516 -0.999999
49.265 4.3 4.57234 0.000977516 0.000977516 -0.999999
48.7475 4.3 4.50244 0.000977516 0.000977516 -0.999999
48.9875 4.3 4.54111 0.000977516 0.000977516 -0.999999
49.2931 4.3 4.78286 0.000977516 0.000977516 -0.999999
49.4994 4.3 5.37096 0.000977516 0.000977516 -0.999999
43.0931 7.1 4.96071 0.000977516 0.000977516 0.999999
43.3812 7.1 4.59293 0.000977516 0.000977516 0.999999
43.0181 7.1 4.59654 0.000977516 0.000977516 0.999999
43.4344 7.1 4.98362 0.000977516 0.000977516 0.999999
43.8431 7.1 4.52214 0.000977516 0.000977516 0.999999
43.2844 7.1 4.8169 0.000977516 0.000977516 0.999999
43.1969 7.1 5.23922 0.000977516 0.000977516 0.999999
43.6481 7.1 4.67819 0.000977516 0.000977516 0.999999
43.0262 7.1 5.3685 0.000977516 0.000977516 0.999999
43.0019 7.1 5.14893 0.000977516 0.000977516 0.999999
43.1969 7.1 4.50554 0.000977516 0.000977516 0.999999
43.6119 7.1 4.87727 0.000977516 0.000977516 0.999999
43.655 7.1 5.39636 0.000977516 0.000977516 0.999999
43.4062 7.1 5.49205 0.000977516 0.000977516 0.999999
43.9906 7.1 5.13349 0.000977516 0.000977516 0.999999
43.4938 7.1 5.26376 0.000977516 0.000977516 0.999999
43.8606 7.1 5.36936 0.000977516 0.000977516 0.999999
43.8969 7.1 4.77096 0.000977516 0.000977516 0.999999
43.775 7.1 5.14895 0.000977516 0.000977516 0.999999
43.1962 7.1 5.47538 0.000977516 0.000977516 0.999999
43.8044 7.1 4.95111 0.000977516 0.000977516 0.999999
47.7056 7.1 5.13964 0.000977516 0.000977516 0.999999
47.84 7.1 4.9723 0.000977516 0.000977516 0.999999
47.6019 7.1 4.9139 0.000977516 0.000977516 0.999999
47.6131 7.1 5.3317 0.000977516 0.000977516 0.999999
47.9662 7.1 4.54542 0.000977516 0.000977516 0.999999
47.45 7.1 5.44905 0.000977516 0.000977516 0.999999
47.4769 7.1 5.13222 0.000977516 0.000977516 0.999999
47.8525 7.1 5.44793 0.000977516 0.000977516 0.999999
47.9369 7.1 5.18968 0.000977516 0.000977516 0.999999
47.2912 7.1 5.25364 0.000977516 0.000977516 0.999999
47.2281 7.1 5.47385 0.000977516 0.000977516 0.999999
47.99 7.1 4.83872 0.000977516 0.000977516 0.999999
47.7825 7.1 4.73897 0.000977516 0.000977516 0.999999
47.0275 7.1 5.49044 0.000977516 0.000977516 0.999999
47.3238 7.1 4.6328 0.000977516 0.000977516 0.999999
47.2256 7.1 5.06394 0.000977516 0.000977516 0.999999
47.6088 7.1 4.55995 0.000977516 0.000977516 0.999999
47.0562 7.1 4.89495 0.000977516 0.000977516 0.999999
47.1225 7.1 4.64991 0.000977516 0.000977516 0.999999
47.3756 7.1 4.91483 0.000977516 0.000977516 0.999999
47.0469 7.1 5.20873 0.000977516 0.000977516 0.999999
47.5056 7.1 4.7379 0.000977516 0.000977516 0.999999
40.1075 7.1 4.96025 0.000977516 0.000977516 0.999999
40.3262 7.1 4.61472 0.000977516 0.000977516 0.999999
40.3169 7.1 4.91429 0.000977516 0.000977516 0.999999
40.9562 7.1 4.62953 0.000977516 0.000977516 0.999999
40.6575 7.1 4.92027 0.000977516 0.000977516 0.999999
40.1325 7.1 5.26969 0.000977516 0.000977516 0.999999
40.5156 7.1 4.53767 0.000977516 0.000977516 0.999999
40.5025 7.1 4.77261 0.000977516 0.000977516 0.999999
40.37 7.1 5.19577 0.000977516 0.000977516 0.999999
40.6981 7.1 4.65441 0.000977516 0.000977516 0.999999
40.1106 7.1 4.73778 0.000977516 0.000977516 0.999999
40.1081 7.1 4.53263 0.000977516 0.000977516 0.999999
40.4856 7.1 5.02346 0.000977516 0.000977516 0.999999
40.1 7.1 5.48537 0.000977516 0.000977516 0.999999
40.5712 7.1 5.28873 0.000977516 0.000977516 0.999999
41.0125 7.1 4.9105 0.000977516 0.000977516 0.999999
41.0012 7.1 5.4911 0.000977516 0.000977516 0.999999
41.0469 7.1 5.17909 0.000977516 0.000977516 0.999999
40.8488 7.1 5.09436 0.000977516 0.000977516 0.999999
40.4356 7.1 5.45516 0.000977516 0.000977516 0.999999
40.8319 7.1 5.32123 0.000977516 0.000977516 0.999999
40.68 7.1 5.48406 0.000977516 0.000977516 0.999999
40.8294 7.1 4.80968 0.000977516 0.000977516 0.999999
52.6 6.635 5.19254 -0.999999 0.000977516 0.000977516
52.6 6.7575 5.37204 -0.999999 0.000977516 0.000977516
52.6 6.0175 4.73598 -0.999999 0.000977516 0.000977516
52.6 6.09875 5.34946 -0.999999 0.000977516 0.000977516
52.6 6.4175 5.0995 -0.999999 0.000977516 0.000977516
52.6 6.2225 4.87844 -0.999999 0.000977516 0.000977516
52.6 6.2025 5.13027 -0.999999 0.000977516 0.000977516
52.6 6.3725 5.41886 -0.999999 0.000977516 0.000977516
52.6 6.57875 5.4677 -0.999999 0.000977516 0.000977516
52.6 6.94 5.48492 -0.999999 0.000977516 0.000977516
52.6 6.0175 5.02595 -0.999999 0.000977516 0.000977516
52.6 6.01125 4.51909 -0.999999 0.000977516 0.000977516
52.6 6.47625 4.65332 -0.999999 0.000977516 0.000977516
52.6 6.85875 4.88178 -0.999999 0.000977516 0.000977516
52.6 6.59625 4.91609 -0.999999 0.000977516 0.000977516
52.6 6.90625 5.14542 -0.999999 0.000977516 0.000977516
52.6 6.2225 4.64637 -0.999999 0.000977516 0.000977516
52.6 6.97375 4.71771 -0.999999 0.000977516 0.000977516
52.6 6.675 4.55764 -0.999999 0.000977516 0.000977516
52.6 6.92875 4.51666 -0.999999 0.000977516 0.000977516
52.6 9.35375 5.23484 -0.999999 0.000977516 0.000977516
52.6 9.02 4.69251 -0.999999 0.000977516 0.000977516
52.6 9.27375 4.76228 -0.999999 0.000977516 0.000977516
52.6 9.4825 4.8389 -0.999999 0.000977516 0.000977516
52.6 8.88125 4.54696 -0.999999 0.000977516 0.000977516
52.6 9.47625 5.42012 -0.999999 0.000977516 0.000977516
52.6 9.02875 4.93644 -0.999999 0.000977516 0.000977516
52.6 9.0975 4.50813 -0.999999 0.000977516 0.000977516
52.6 9.3775 4.5221 -0.999999 0.000977516 0.000977516
52.6 9.22125 5.04984 -0.999999 0.000977516 0.000977516
52.6 8.7725 4.74788 -0.999999 0.000977516 0.000977516
52.6 8.60125 4.54116 -0.999999 0.000977516 0.000977516
52.6 9.46125 5.05966 -0.999999 0.000977516 0.000977516
52.6 8.8575 5.21863 -0.999999 0.000977516 0.000977516
52.6 8.62875 5.0491 -0.999999 0.000977516 0.000977516
52.6 9 5.37764 -0.999999 0.000977516 0.000977516
52.6 8.78375 5.45925 -0.999999 0.000977516 0.000977516
52.6 8.50125 5.31212 -0.999999 0.000977516 0.000977516
52.6 8.54625 4.74148 -0.999999 0.000977516 0.000977516
52.6 9.2125 5.46378 -0.999999 0.000977516 0.000977516
52.6 8.8275 5.02052 -0.999999 0.000977516 0.000977516
52.6 8.575 5.49811 -0.999999 0.000977516 0.000977516
52.6 9.07 5.18677 -0.999999 0.000977516 0.000977516
50 8.3575 5.16706 0.999999 0.000977516 0.000977516
50 7.92 5.35371 0.999999 0.000977516 0.000977516
50 8.25875 5.36508 0.999999 0.000977516 0.000977516
50 7.8275 5.15058 0.999999 0.000977516 0.000977516
50 7.9925 5.01823 0.999999 0.000977516 0.000977516
50 7.6725 5.48539 0.999999 0.000977516 0.000977516
50 8.38375 4.88697 0.999999 0.000977516 0.000977516
50 8.185 4.72261 0.999999 0.000977516 0.000977516
50 7.6375 5.26788 0.999999 0.000977516 0.000977516
50 8.38875 4.66209 0.999999 0.000977516 0.000977516
50 8.0925 5.2008 0.999999 0.000977516 0.000977516
50 7.47375 5.46288 0.999999 0.000977516 0.000977516
50 8.1875 4.94905 0.999999 0.000977516 0.000977516
50 8.095 5.49766 0.999999 0.000977516 0.000977516
50 8.23625 4.51432 0.999999 0.000977516 0.000977516
50 7.40875 5.2012 0.999999 0.000977516 0.000977516
50 7.88 4.56122 0.999999 0.000977516 0.000977516
50 7.59375 5.05941 0.999999 0.000977516 0.000977516
50 7.69125 4.7589 0.999999 0.000977516 0.000977516
50 7.4425 4.63964 0.999999 0.000977516 0.000977516
50 7.675 4.52724 0.999999 0.000977516 0.000977516
50 7.78875 4.95437 0.999999 0.000977516 0.000977516
50 7.4875 4.84463 0.999999 0.000977516 0.000977516
50 7.97 4.80409 0.999999 0.000977516 0.000977516
50 10.9088 4.61646 0.999999 0.000977516 0.000977516
50 10.485 4.83352 0.999999 0.000977516 0.000977516
50 10.875 4.89892 0.999999 0.000977516 0.000977516
50 10.6112 5.04039 0.999999 0.000977516 0.000977516
50 10.6488 4.68404 0.999999 0.000977516 0.000977516
50 10.6162 5.28011 0.999999 0.000977516 0.000977516
50 10.4362 4.50729 0.999999 0.000977516 0.000977516
50 11.1338 4.5785 0.999999 0.000977516 0.000977516
50 10.4262 5.21514 0.999999 0.000977516 0.000977516
50 11.38 4.5095 0.999999 0.000977516 0.000977516
50 11.0525 4.77269 0.999999 0.000977516 0.000977516
50 10.41 5.46997 0.999999 0.000977516 0.000977516
50 10.7288 4.50008 0.999999 0.000977516 0.000977516
50 10.81 5.08973 0.999999 0.000977516 0.000977516
50 10.4 5.01626 0.999999 0.000977516 0.000977516
50 10.8788 5.31861 0.999999 0.000977516 0.000977516
50 11.1775 5.25593 0.999999 0.000977516 0.000977516
50 11.3912 5.3793 0.999999 0.000977516 0.000977516
50 11.3862 5.08272 0.999999 0.000977516 0.000977516
50 11.045 5.01053 0.999999 0.000977516 0.000977516
50 11.3875 4.76008 0.999999 0.000977516 0.000977516
50 11.04 5.45598 0.999999 0.000977516 0.000977516
50 10.6838 5.47167 0.999999 0.000977516 0.000977516
50 11.235 4.90838 0.999999 0.000977516 0.000977516
53.1931 13.4588 3.6 0.000977516 -0.999999 0.000977516
52.9719 13.4362 3.6 0.000977516 -0.999999 0.000977516
53.3869 13.5512 3.6 0.000977516 -0.999999 0.000977516
53.2912 13.7825 3.6 0.000977516 -0.999999 0.000977516
52.9231 13.7112 3.6 0.000977516 -0.999999 0.000977516
53.085 13.8988 3.6 0.000977516 -0.999999 0.000977516
53.1325 13.65 3.6 0.000977516 -0.999999 0.000977516
52.5581 13.5175 3.6 0.000977516 -0.999999 0.000977516
52.7881 13.53 3.6 0.000977516 -0.999999 0.000977516
53.26 14.2238 3.6 0.000977516 -0.999999 0.000977516
53.3494 14.015 3.6 0.000977516 -0.999999 0.000977516
53.3906 14.3762 3.6 0.000977516 -0.999999 0.000977516
53.1006 14.0988 3.6 0.000977516 -0.999999 0.000977516
52.6275 13.745 3.6 0.000977516 -0.999999 0.000977516
52.4319 13.795 3.6 0.000977516 -0.999999 0.000977516
52.7988 13.8825 3.6 0.000977516 -0.999999 0.000977516
52.9138 14.1775 3.6 0.000977516 -0.999999 0.000977516
53.0606 14.3375 3.6 0.000977516 -0.999999 0.000977516
52.5594 14.0225 3.6 0.000977516 -0.999999 0.000977516
52.7006 14.175 3.6 0.000977516 -0.999999 0.000977516
52.6169 14.385 3.6 0.000977516 -0.999999 0.000977516
52.4062 14.2888 3.6 0.000977516 -0.999999 0.000977516
52.8244 14.3875 3.6 0.000977516 -0.999999 0.000977516
53.1306 13.4062 4.6 0.000977516 0.999999 0.000977516
53.38 13.5662 4.6 0.000977516 0.999999 0.000977516
53.3862 13.8412 4.6 0.000977516 0.999999 0.000977516
53.1269 13.6112 4.6 0.000977516 0.999999 0.000977516
52.9238 13.4175 4.6 0.000977516 0.999999 0.000977516
53.1144 13.8838 4.6 0.000977516 0.999999 0.000977516
52.9269 13.7188 4.6 0.000977516 0.999999 0.000977516
53.1931 14.14 4.6 0.000977516 0.999999 0.000977516
53.39 14.3412 4.6 0.000977516 0.999999 0.000977516
53.3762 14.0425 4.6 0.000977516 0.999999 0.000977516
52.6512 13.53 4.6 0.000977516 0.999999 0.000977516
52.4575 13.4162 4.6 0.000977516 0.999999 0.000977516
52.7206 13.7188 4.6 0.000977516 0.999999 0.000977516
53.0044 14.3362 4.6 0.000977516 0.999999 0.000977516
52.9512 14.0025 4.6 0.000977516 0.999999 0.000977516
53.195 14.4 4.6 0.000977516 0.999999 0.000977516
52.4256 13.8275 4.6 0.000977516 0.999999 0.000977516
52.4706 13.6288 4.6 0.000977516 0.999999 0.000977516
52.6244 13.8988 4.6 0.000977516 0.999999 0.000977516
52.8169 14.2038 4.6 0.000977516 0.999999 0.000977516
52.6419 14.1025 4.6 0.000977516 0.999999 0.000977516
52.6719 14.3925 4.6 0.000977516 0.999999 0.000977516
52.4738 14.3 4.6 0.000977516 0.999999 0.000977516
52.4288 14.03 4.6 0.000977516 0.999999 0.000977516
53.2012 13.4 3.79265 0.000977516 0.000977516 0.999999
53.4 13.4 3.82629 0.000977516 0.000977516 0.999999
53.3944 13.4 4.07936 0.000977516 0.000977516 0.999999
53.1694 13.4 4.03263 0.000977516 0.000977516 0.999999
52.9362 13.4 4.0456 0.000977516 0.000977516 0.999999
53.0006 13.4 3.80994 0.000977516 0.000977516 0.999999
53.2962 13.4 4.26875 0.000977516 0.000977516 0.999999
53.3944 13.4 4.48752 0.000977516 0.000977516 0.999999
53.0588 13.4 4.24184 0.000977516 0.000977516 0.999999
52.7056 13.4 3.82654 0.000977516 0.000977516 0.999999
52.9206 13.4 4.3999 0.000977516 0.000977516 0.999999
52.4212 13.4 3.84131 0.000977516 0.000977516 0.999999
52.5044 13.4 4.0748 0.000977516 0.000977516 0.999999
52.7212 13.4 4.09263 0.000977516 0.000977516 0.999999
52.4006 13.4 3.63775 0.000977516 0.000977516 0.999999
52.7069 13.4 4.3511 0.000977516 0.000977516 0.999999
52.435 13.4 4.30338 0.000977516 0.000977516 0.999999
53.4 14.29 3.93298 0.999999 0.000977516 0.000977516
53.4 14.1375 3.78996 0.999999 0.000977516 0.000977516
53.4 13.9912 4.02127 0.999999 0.000977516 0.000977516
53.4 13.9325 3.8109 0.999999 0.000977516 0.000977516
53.4 14.075 4.25386 0.999999 0.000977516 0.000977516
53.4 14.3638 4.24391 0.999999 0.000977516 0.000977516
53.4 14.2112 4.41064 0.999999 0.000977516 0.000977516
53.4 13.6412 3.79498 0.999999 0.000977516 0.000977516
53.4 13.7888 3.9666 0.999999 0.000977516 0.000977516
53.4 13.9162 4.40501 0.999999 0.000977516 0.000977516
53.4 13.6212 4.08556 0.999999 0.000977516 0.000977516
53.4 13.6588 4.30868 0.999999 0.000977516 0.000977516
53.4 13.8488 4.21538 0.999999 0.000977516 0.000977516
52.6844 14.4 3.80179 0.000977516 0.000977516 -0.999999
52.4256 14.4 3.94462 0.000977516 0.000977516 -0.999999
52.4844 14.4 3.7496 0.000977516 0.000977516 -0.999999
52.7069 14.4 4.09851 0.000977516 0.000977516 -0.999999
52.8444 14.4 3.94782 0.000977516 0.000977516 -0.999999
52.5044 14.4 4.2618 0.000977516 0.000977516 -0.999999
52.4012 14.4 4.43697 0.000977516 0.000977516 -0.999999
53.0619 14.4 3.87663 0.000977516 0.000977516 -0.999999
53.2194 14.4 3.70521 0.000977516 0.000977516 -0.999999
52.8869 14.4 4.20591 0.000977516 0.000977516 -0.999999
52.6919 14.4 4.37508 0.000977516 0.000977516 -0.999999
52.895 14.4 4.44274 0.000977516 0.000977516 -0.999999
53.1425 14.4 4.07143 0.000977516 0.000977516 -0.999999
53.0738 14.4 4.29273 0.000977516 0.000977516 -0.999999
53.2731 14.4 4.40489 0.000977516 0.000977516 -0.999999
52.4 13.61 3.71146 -0.999999 0.000977516 0.000977516
52.4 13.5862 3.91302 -0.999999 0.000977516 0.000977516
52.4 13.8612 3.89687 -0.999999 0.000977516 0.000977516
52.4 13.7538 4.09467 -0.999999 0.000977516 0.000977516
52.4 13.5788 4.40485 -0.999999 0.000977516 0.000977516
52.4 13.5588 4.15721 -0.999999 0.000977516 0.000977516
52.4 14.15 3.82799 -0.999999 0.000977516 0.000977516
52.4 13.9738 3.73028 -0.999999 0.000977516 0.000977516
52.4 13.7588 4.29821 -0.999999 0.000977516 0.000977516
52.4 14.025 4.03719 -0.999999 0.000977516 0.000977516
52.4 14.2425 4.09236 -0.999999 0.000977516 0.000977516
52.4 13.975 4.39978 -0.999999 0.000977516 0.000977516
52.4 14.1838 4.308 -0.999999 0.000977516 0.000977516
49.9 13.9288 3.62494 0.999999 0.000977516 0.000977516
49.9 14.3 3.75435 0.999999 0.000977516 0.000977516
49.9 14.4 3.99134 0.999999 0.000977516 0.000977516
49.9 14.1 3.749 0.999999 0.000977516 0.000977516
49.4562 13.7362 3.6 0.000977516 -0.999999 0.000977516
49.4325 13.53 3.6 0.000977516 -0.999999 0.000977516
49.7094 13.8088 3.6 0.000977516 -0.999999 0.000977516
49.6212 13.6225 3.6 0.000977516 -0.999999 0.000977516
49.0338 13.4925 3.6 0.000977516 -0.999999 0.000977516
49.2081 13.7062 3.6 0.000977516 -0.999999 0.000977516
49.2494 13.4238 3.6 0.000977516 -0.999999 0.000977516
49.4856 13.9712 3.6 0.000977516 -0.999999 0.000977516
49.7819 14.2288 3.6 0.000977516 -0.999999 0.000977516
49.7012 14.02 3.6 0.000977516 -0.999999 0.000977516
49.0062 13.8338 3.6 0.000977516 -0.999999 0.000977516
49.3006 13.89 3.6 0.000977516 -0.999999 0.000977516
48.9012 13.6438 3.6 0.000977516 -0.999999 0.000977516
49.4206 14.3312 3.6 0.000977516 -0.999999 0.000977516
49.5644 14.1738 3.6 0.000977516 -0.999999 0.000977516
49.6369 14.3988 3.6 0.000977516 -0.999999 0.000977516
49.1012 14.0262 3.6 0.000977516 -0.999999 0.000977516
49.24 14.19 3.6 0.000977516 -0.999999 0.000977516
48.91 14.0938 3.6 0.000977516 -0.999999 0.000977516
49.0294 14.2962 3.6 0.000977516 -0.999999 0.000977516
49.2119 14.3988 3.6 0.000977516 -0.999999 0.000977516
49.8162 13.5725 4.6 0.000977516 0.999999 0.000977516
49.5556 13.4788 4.6 0.000977516 0.999999 0.000977516
49.8394 13.7962 4.6 0.000977516 0.999999 0.000977516
49.5406 13.8425 4.6 0.000977516 0.999999 0.000977516
49.435 13.6612 4.6 0.000977516 0.999999 0.000977516
49.6356 13.665 4.6 0.000977516 0.999999 0.000977516
49.8981 14.345 4.6 0.000977516 0.999999 0.000977516
49.8325 14.07 4.6 0.000977516 0.999999 0.000977516
49.56 14.0562 4.6 0.000977516 0.999999 0.000977516
49.1831 13.585 4.6 0.000977516 0.999999 0.000977516
48.9262 13.425 4.6 0.000977516 0.999999 0.000977516
49.3588 13.4325 4.6 0.000977516 0.999999 0.000977516
49.34 13.8388 4.6 0.000977516 0.999999 0.000977516
49.6131 14.3888 4.6 0.000977516 0.999999 0.000977516
49.46 14.26 4.6 0.000977516 0.999999 0.000977516
48.9925 13.6725 4.6 0.000977516 0.999999 0.000977516
49.0025 13.88 4.6 0.000977516 0.999999 0.000977516
49.305 14.1175 4.6 0.000977516 0.999999 0.000977516
49.1 14.0638 4.6 0.000977516 0.999999 0.000977516
49.2294 14.305 4.6 0.000977516 0.999999 0.000977516
49.0075 14.3125 4.6 0.000977516 0.999999 0.000977516
48.9012 14.115 4.6 0.000977516 0.999999 0.000977516
49.6406 13.4 3.71289 0.000977516 0.000977516 0.999999
49.8531 13.4 3.78083 0.000977516 0.000977516 0.999999
49.8212 13.4 4.00416 0.000977516 0.000977516 0.999999
49.4338 13.4 3.95594 0.000977516 0.000977516 0.999999
49.6044 13.4 4.07017 0.000977516 0.000977516 0.999999
49.4075 13.4 3.75557 0.000977516 0.000977516 0.999999
49.8988 13.4 4.22209 0.000977516 0.000977516 0.999999
49.7056 13.4 4.29615 0.000977516 0.000977516 0.999999
49.8888 13.4 4.43653 0.000977516 0.000977516 0.999999
49.1894 13.4 3.79533 0.000977516 0.000977516 0.999999
49.4881 13.4 4.34059 0.000977516 0.000977516 0.999999
49.4038 13.4 4.1569 0.000977516 0.000977516 0.999999
48.9231 13.4 4.06634 0.000977516 0.000977516 0.999999
48.9862 13.4 3.86294 0.000977516 0.000977516 0.999999
49.2094 13.4 4.00632 0.000977516 0.000977516 0.999999
49.2094 13.4 4.39835 0.000977516 0.000977516 0.999999
49.0862 13.4 4.1853 0.000977516 0.000977516 0.999999
48.9688 13.4 4.35755 0.000977516 0.000977516 0.999999
49.8462 13.5738 3.6 0.000977516 -0.999999 0.000977516
49.9 14.1025 4.04387 0.999999 0.000977516 0.000977516
49.9 13.9088 3.95259 0.999999 0.000977516 0.000977516
49.9 14.3562 4.26731 0.999999 0.000977516 0.000977516
49.9 14.115 4.27099 0.999999 0.000977516 0.000977516
49.9 13.74 3.7855 0.999999 0.000977516 0.000977516
49.9 13.955 4.42434 0.999999 0.000977516 0.000977516
49.9 13.9138 4.16979 0.999999 0.000977516 0.000977516
49.9 14.2025 4.45542 0.999999 0.000977516 0.000977516
49.9 13.64 4.09014 0.999999 0.000977516 0.000977516
49.9 13.5662 3.90319 0.999999 0.000977516 0.000977516
49.9 13.7725 4.32061 0.999999 0.000977516 0.000977516
49.9 13.57 4.32887 0.999999 0.000977516 0.000977516
49.0669 14.4 3.78894 0.000977516 0.000977516 -0.999999
48.94 14.4 3.98801 0.000977516 0.000977516 -0.999999
49.1862 14.4 3.96502 0.000977516 0.000977516 -0.999999
49.3575 14.4 3.82861 0.000977516 0.000977516 -0.999999
49.3838 14.4 4.08107 0.000977516 0.000977516 -0.999999
49.0225 14.4 4.30297 0.000977516 0.000977516 -0.999999
49.2412 14.4 4.22936 0.000977516 0.000977516 -0.999999
49.5669 14.4 3.81389 0.000977516 0.000977516 -0.999999
49.3862 14.4 4.43012 0.000977516 0.000977516 -0.999999
49.1831 14.4 4.42526 0.000977516 0.000977516 -0.999999
49.6131 14.4 4.07366 0.000977516 0.000977516 -0.999999
49.6781 14.4 4.32057 0.000977516 0.000977516 -0.999999
49.4906 14.4 4.25035 0.000977516 0.000977516 -0.999999
48.9 13.6388 3.84536 -0.999999 0.000977516 0.000977516
48.9 13.8762 3.80102 -0.999999 0.000977516 0.000977516
48.9 13.6812 4.07876 -0.999999 0.000977516 0.000977516
48.9 13.895 4.0105 -0.999999 0.000977516 0.000977516
48.9 13.5912 4.39547 -0.999999 0.000977516 0.000977516
48.9 14.0912 3.86547 -0.999999 0.000977516 0.000977516
48.9 13.8388 4.23015 -0.999999 0.000977516 0.000977516
48.9 13.8 4.44725 -0.999999 0.000977516 0.000977516
48.9 14.1438 4.09996 -0.999999 0.000977516 0.000977516
48.9 14.2862 3.77549 -0.999999 0.000977516 0.000977516
48.9 14.0262 4.31477 -0.999999 0.000977516 0.000977516
48.9 14.2712 4.41443 -0.999999 0.000977516 0.000977516
51.3631 14.9225 3.6 0.000977516 -0.999999 0.000977516
51.5925 15.1388 3.6 0.000977516 -0.999999 0.000977516
51.6644 14.9288 3.6 0.000977516 -0.999999 0.000977516
51.6712 15.365 3.6 0.000977516 -0.999999 0.000977516
51.2062 15.1612 3.6 0.000977516 -0.999999 0.000977516
51.4294 15.3512 3.6 0.000977516 -0.999999 0.000977516
51.225 15.375 3.6 0.000977516 -0.999999 0.000977516
50.955 15.105 3.6 0.000977516 -0.999999 0.000977516
51.1038 14.97 3.6 0.000977516 -0.999999 0.000977516
50.9006 14.9125 3.6 0.000977516 -0.999999 0.000977516
51.645 15.7625 3.6 0.000977516 -0.999999 0.000977516
51.5144 15.5425 3.6 0.000977516 -0.999999 0.000977516
51.0212 15.32 3.6 0.000977516 -0.999999 0.000977516
50.7375 15.2925 3.6 0.000977516 -0.999999 0.000977516
50.7062 15.0288 3.6 0.000977516 -0.999999 0.000977516
51.46 15.8925 3.6 0.000977516 -0.999999 0.000977516
51.3006 15.655 3.6 0.000977516 -0.999999 0.000977516
51.2338 15.8712 3.6 0.000977516 -0.999999 0.000977516
50.9819 15.54 3.6 0.000977516 -0.999999 0.000977516
51.0894 15.715 3.6 0.000977516 -0.999999 0.000977516
50.7888 15.4875 3.6 0.000977516 -0.999999 0.000977516
50.7994 15.8888 3.6 0.000977516 -0.999999 0.000977516
50.7419 15.6938 3.6 0.000977516 -0.999999 0.000977516
51.0094 15.8988 3.6 0.000977516 -0.999999 0.000977516
51.4062 15.0425 4.6 0.000977516 0.999999 0.000977516
51.6719 15.0475 4.6 0.000977516 0.999999 0.000977516
51.6694 15.3625 4.6 0.000977516 0.999999 0.000977516
51.2269 14.9175 4.6 0.000977516 0.999999 0.000977516
51.5388 15.2075 4.6 0.000977516 0.999999 0.000977516
51.3538 15.395 4.6 0.000977516 0.999999 0.000977516
51.2388 15.2038 4.6 0.000977516 0.999999 0.000977516
51.6631 15.6262 4.6 0.000977516 0.999999 0.000977516
51.4519 15.59 4.6 0.000977516 0.999999 0.000977516
51.6631 15.8412 4.6 0.000977516 0.999999 0.000977516
50.9569 14.9875 4.6 0.000977516 0.999999 0.000977516
50.7394 14.9025 4.6 0.000977516 0.999999 0.000977516
51.0031 15.1925 4.6 0.000977516 0.999999 0.000977516
51.3562 15.77 4.6 0.000977516 0.999999 0.000977516
51.2319 15.6088 4.6 0.000977516 0.999999 0.000977516
50.8694 15.37 4.6 0.000977516 0.999999 0.000977516
50.7562 15.1412 4.6 0.000977516 0.999999 0.000977516
51.1525 15.3888 4.6 0.000977516 0.999999 0.000977516
51.0419 15.7138 4.6 0.000977516 0.999999 0.000977516
51.1919 15.885 4.6 0.000977516 0.999999 0.000977516
50.8775 15.5762 4.6 0.000977516 0.999999 0.000977516
50.7356 15.7212 4.6 0.000977516 0.999999 0.000977516
50.8981 15.885 4.6 0.000977516 0.999999 0.000977516
50.7006 15.4775 4.6 0.000977516 0.999999 0.000977516
51.62 14.9 3.80491 0.000977516 0.000977516 0.999999
51.6394 14.9 4.02922 0.000977516 0.000977516 0.999999
